1.045510 -2.243726 0.352048 0.385678 -0.914618 -0.121349
1.129391 -2.231096 0.551412 0.386573 -0.918045 -0.088064
1.058160 -2.270636 0.651670 0.385851 -0.918410 -0.087422
1.140422 -2.252726 0.858786 0.386389 -0.920336 -0.060707
1.067365 -2.290246 0.963229 0.385979 -0.920532 -0.060352
1.148152 -2.267909 1.176961 0.386283 -0.921543 -0.039305
1.073670 -2.303709 1.284837 0.386061 -0.921643 -0.039122
1.153168 -2.277781 1.504031 0.386216 -0.922120 -0.023048
1.077623 -2.312175 1.614610 0.386109 -0.922168 -0.022958
1.156052 -2.283480 1.838088 0.386173 -0.922357 -0.011329
1.079768 -2.316797 1.950661 0.386128 -0.922376 -0.011292
1.157390 -2.286143 2.177225 0.386148 -0.922429 -0.003733
1.080652 -2.318727 2.291106 0.386135 -0.922435 -0.003723
1.157767 -2.286906 2.519533 0.386137 -0.922441 -0.000001
1.080821 -2.319116 2.634057 0.386137 -0.922441 0.000001
1.328051 -2.094788 0.261238 0.476758 -0.870222 -0.124156
1.264437 -2.143070 0.356158 0.475738 -0.870922 -0.123158
1.345823 -2.122675 0.554361 0.477077 -0.874329 -0.089147
1.279741 -2.168858 0.654315 0.476469 -0.874717 -0.088579
1.358968 -2.143324 0.860593 0.477251 -0.876621 -0.061382
1.290880 -2.187652 0.964805 0.476903 -0.876832 -0.061069
1.368184 -2.157819 1.177967 0.477331 -0.877826 -0.039708
1.298513 -2.200555 1.285680 0.477144 -0.877935 -0.039543
1.374165 -2.167245 1.504515 0.477355 -0.878402 -0.023266
1.303301 -2.208671 1.614991 0.477263 -0.878454 -0.023187
1.377607 -2.172688 1.838270 0.477350 -0.878639 -0.011430
1.305903 -2.213103 1.950789 0.477313 -0.878659 -0.011396
1.379206 -2.175231 2.177265 0.477339 -0.878711 -0.003766
1.306978 -2.214954 2.291128 0.477327 -0.878718 -0.003757
1.379658 -2.175961 2.519533 0.477332 -0.878723 -0.000000
1.307185 -2.215328 2.634057 0.477331 -0.878724 0.000001
1.527027 -1.967040 0.264739 0.567392 -0.813830 -0.125490
1.469552 -2.021650 0.359583 0.566713 -0.814413 -0.124771
1.547445 -1.993318 0.556664 0.568580 -0.817688 -0.090019
1.487329 -2.046062 0.656523 0.568174 -0.818015 -0.089608
1.562550 -2.012776 0.862007 0.569238 -0.819837 -0.061932
1.500271 -2.063855 0.966124 0.569007 -0.820014 -0.061708
1.573141 -2.026438 1.178755 0.569575 -0.820964 -0.040036
1.509142 -2.076073 1.286387 0.569451 -0.821056 -0.039921
1.580017 -2.035323 1.504896 0.569725 -0.821501 -0.023447
1.514710 -2.083759 1.615312 0.569665 -0.821544 -0.023392
1.583976 -2.040455 1.838415 0.569776 -0.821719 -0.011514
1.517737 -2.087957 1.950898 0.569750 -0.821737 -0.011490
1.585817 -2.042854 2.177298 0.569784 -0.821786 -0.003792
1.518990 -2.089712 2.291147 0.569775 -0.821792 -0.003787
1.586338 -2.043542 2.519533 0.569780 -0.821798 0.000001
1.519234 -2.090068 2.634057 0.569780 -0.821797 -0.000000
1.708830 -1.818658 0.266642 0.657109 -0.743161 -0.126172
1.658264 -1.879485 0.361790 0.656867 -0.743424 -0.125885
1.731645 -1.843039 0.557920 0.659314 -0.746404 -0.090479
1.678301 -1.902262 0.657950 0.659169 -0.746552 -0.090315
1.748526 -1.861094 0.862782 0.660540 -0.748208 -0.062229
1.692890 -1.918864 0.966980 0.660456 -0.748289 -0.062140
1.760364 -1.873771 1.179190 0.661178 -0.749151 -0.040220
1.702893 -1.930266 1.286849 0.661134 -0.749192 -0.040173
1.768051 -1.882018 1.505108 0.661475 -0.749598 -0.023548
1.709173 -1.937440 1.615524 0.661454 -0.749617 -0.023528
1.772479 -1.886782 1.838496 0.661589 -0.749777 -0.011562
1.712590 -1.941361 1.950971 0.661581 -0.749785 -0.011554
1.774540 -1.889010 2.177317 0.661619 -0.749830 -0.003808
1.714006 -1.943000 2.291160 0.661616 -0.749833 -0.003806
1.775124 -1.889650 2.519533 0.661621 -0.749838 -0.000000
1.714283 -1.943334 2.634057 0.661620 -0.749839 -0.000000
-0.083458 -2.438330 0.339413 -0.041945 -0.992289 -0.116632
-0.165698 -2.423269 0.241068 -0.042256 -0.992246 -0.116887
-0.331745 -2.420920 0.340935 -0.125964 -0.985101 -0.117085
-0.411913 -2.399014 0.243428 -0.126749 -0.984922 -0.117745
-0.576576 -2.382670 0.343903 -0.210894 -0.970346 -0.118122
-0.653832 -2.354016 0.247233 -0.211994 -0.969991 -0.119065
-0.815361 -2.323598 0.347785 -0.297354 -0.947247 -0.119601
-0.888878 -2.288298 0.251876 -0.298600 -0.946715 -0.120702
-1.045512 -2.243725 0.352048 -0.385678 -0.914618 -0.121349
-1.114477 -2.201881 0.256747 -0.386896 -0.913954 -0.122472
-1.264439 -2.143069 0.356158 -0.475738 -0.870922 -0.123158
-1.328052 -2.094787 0.261238 -0.476759 -0.870222 -0.124156
-1.469553 -2.021649 0.359583 -0.566713 -0.814413 -0.124771
-1.527029 -1.967039 0.264739 -0.567392 -0.813829 -0.125491
-1.658266 -1.879484 0.361790 -0.656867 -0.743423 -0.125886
-1.708831 -1.818657 0.266642 -0.657109 -0.743161 -0.126171
-0.084372 -2.467330 0.643564 -0.041779 -0.995556 -0.084402
-0.167829 -2.455128 0.541137 -0.041964 -0.995535 -0.084552
-0.335693 -2.449743 0.644535 -0.125621 -0.988456 -0.084698
-0.417370 -2.430596 0.542678 -0.126083 -0.988365 -0.085079
-0.583514 -2.411090 0.646437 -0.210537 -0.973852 -0.085361
-0.662552 -2.385070 0.545170 -0.211185 -0.973664 -0.085904
-0.825211 -2.351383 0.648930 -0.297163 -0.950918 -0.086303
-0.900764 -2.318565 0.548215 -0.297901 -0.950630 -0.086937
-1.058162 -2.270635 0.651670 -0.385852 -0.918409 -0.087421
-1.129392 -2.231095 0.551412 -0.386573 -0.918045 -0.088064
-1.279742 -2.168857 0.654315 -0.476468 -0.874718 -0.088578
-1.345824 -2.122674 0.554361 -0.477077 -0.874329 -0.089149
-1.487330 -2.046062 0.656523 -0.568175 -0.818014 -0.089610
-1.547446 -1.993317 0.556664 -0.568581 -0.817687 -0.090019
-1.678303 -1.902261 0.657950 -0.659170 -0.746551 -0.090315
-1.731646 -1.843038 0.557920 -0.659314 -0.746404 -0.090479
-0.085024 -2.488458 0.958417 -0.041696 -0.997417 -0.058481
-0.169395 -2.478713 0.852506 -0.041798 -0.997408 -0.058566
-0.338557 -2.470744 0.958988 -0.125448 -0.990364 -0.058669
-0.421398 -2.453976 0.853444 -0.125709 -0.990318 -0.058877
-0.588556 -2.431799 0.960116 -0.210363 -0.975837 -0.059078
-0.668996 -2.408060 0.854966 -0.210731 -0.975739 -0.059378
-0.832375 -2.371630 0.961598 -0.297089 -0.952984 -0.059661
-0.909552 -2.340974 0.856828 -0.297507 -0.952832 -0.060011
-1.067367 -2.290245 0.963229 -0.385979 -0.920531 -0.060354
-1.140423 -2.252725 0.858786 -0.386390 -0.920336 -0.060706
-1.290881 -2.187651 0.964805 -0.476903 -0.876832 -0.061070
-1.358970 -2.143323 0.860593 -0.477249 -0.876622 -0.061382
-1.500272 -2.063855 0.966124 -0.569007 -0.820014 -0.061707
-1.562551 -2.012776 0.862007 -0.569240 -0.819836 -0.061932
-1.692892 -1.918863 0.966980 -0.660457 -0.748288 -0.062140
-1.748527 -1.861093 0.862782 -0.660541 -0.748207 -0.062229
-0.085459 -2.502959 1.282282 -0.041655 -0.998408 -0.038020
-0.170483 -2.495263 1.173482 -0.041711 -0.998405 -0.038064
-0.340509 -2.485158 1.282581 -0.125368 -0.991377 -0.038133
-0.424213 -2.470385 1.173998 -0.125507 -0.991355 -0.038242
-0.592005 -2.446014 1.283179 -0.210287 -0.976886 -0.038372
-0.673508 -2.424196 1.174841 -0.210484 -0.976838 -0.038530
-0.837280 -2.385529 1.283967 -0.297066 -0.954072 -0.038717
-0.915708 -2.356702 1.175874 -0.297290 -0.953995 -0.038897
-1.073672 -2.303708 1.284837 -0.386065 -0.921642 -0.039122
-1.148154 -2.267908 1.176961 -0.386283 -0.921542 -0.039306
-1.298515 -2.200554 1.285680 -0.477144 -0.877935 -0.039543
-1.368186 -2.157818 1.177967 -0.477331 -0.877826 -0.039708
-1.509144 -2.076072 1.286387 -0.569452 -0.821055 -0.039921
-1.573143 -2.026437 1.178755 -0.569576 -0.820963 -0.040036
-1.702895 -1.930265 1.286849 -0.661134 -0.749192 -0.040173
-1.760366 -1.873770 1.179190 -0.661179 -0.749150 -0.040221
-0.085720 -2.512074 1.613469 -0.041638 -0.998882 -0.022363
-0.171179 -2.506022 1.502368 -0.041665 -0.998881 -0.022381
-0.341724 -2.494220 1.613599 -0.125335 -0.991861 -0.022423
-0.426032 -2.481052 1.502612 -0.125403 -0.991851 -0.022474
-0.594160 -2.454951 1.613865 -0.210257 -0.977386 -0.022552
-0.676429 -2.434686 1.503014 -0.210354 -0.977363 -0.022630
-0.840352 -2.394268 1.614218 -0.297063 -0.954587 -0.022740
-0.919700 -2.366929 1.503509 -0.297172 -0.954551 -0.022824
-1.077625 -2.312174 1.614610 -0.386109 -0.922168 -0.022957
-1.153169 -2.277780 1.504031 -0.386219 -0.922119 -0.023047
-1.303303 -2.208670 1.614991 -0.477265 -0.878454 -0.023187
-1.374166 -2.167244 1.504515 -0.477355 -0.878402 -0.023266
-1.514711 -2.083758 1.615312 -0.569665 -0.821544 -0.023391
-1.580019 -2.035322 1.504896 -0.569727 -0.821500 -0.023446
-1.709175 -1.937439 1.615524 -0.661453 -0.749617 -0.023526
-1.768053 -1.882017 1.505108 -0.661475 -0.749597 -0.023550
-0.085851 -2.517046 1.950287 -0.041631 -0.999072 -0.011014
-0.171570 -2.512229 1.837469 -0.041643 -0.999072 -0.011025
-0.342375 -2.499164 1.950327 -0.125322 -0.992055 -0.011044
-0.427071 -2.487207 1.837558 -0.125351 -0.992051 -0.011066
-0.595324 -2.459828 1.950414 -0.210247 -0.977585 -0.011105
-0.678105 -2.440741 1.837708 -0.210288 -0.977576 -0.011137
-0.842016 -2.399039 1.950531 -0.297064 -0.954792 -0.011191
-0.921993 -2.372831 1.837892 -0.297110 -0.954777 -0.011224
-1.079770 -2.316796 1.950661 -0.386129 -0.922376 -0.011290
-1.156054 -2.283479 1.838088 -0.386175 -0.922356 -0.011328
-1.305905 -2.213102 1.950789 -0.477313 -0.878659 -0.011398
-1.377609 -2.172687 1.838270 -0.477352 -0.878638 -0.011430
-1.517739 -2.087956 1.950898 -0.569752 -0.821737 -0.011492
-1.583978 -2.040453 1.838415 -0.569776 -0.821719 -0.011514
-1.712592 -1.941359 1.950971 -0.661581 -0.749785 -0.011554
-1.772481 -1.886780 1.838496 -0.661589 -0.749777 -0.011563
-0.085894 -2.519118 2.291046 -0.041630 -0.999126 -0.003638
-0.171744 -2.515126 2.177089 -0.041633 -0.999126 -0.003639
-0.342636 -2.501225 2.291052 -0.125320 -0.992110 -0.003645
-0.427547 -2.490080 2.177108 -0.125328 -0.992109 -0.003653
-0.595798 -2.461862 2.291065 -0.210246 -0.977642 -0.003664
-0.678879 -2.443568 2.177141 -0.210257 -0.977639 -0.003672
-0.842699 -2.401029 2.291084 -0.297065 -0.954850 -0.003692
-0.923055 -2.375588 2.177181 -0.297079 -0.954846 -0.003700
-1.080654 -2.318726 2.291106 -0.386136 -0.922434 -0.003722
-1.157392 -2.286142 2.177225 -0.386149 -0.922429 -0.003736
-1.306980 -2.214953 2.291128 -0.477328 -0.878717 -0.003756
-1.379208 -2.175230 2.177265 -0.477339 -0.878711 -0.003766
-1.518992 -2.089711 2.291147 -0.569777 -0.821791 -0.003787
-1.585819 -2.042853 2.177298 -0.569782 -0.821787 -0.003793
-1.714008 -1.942999 2.291160 -0.661617 -0.749832 -0.003807
-1.774542 -1.889009 2.177317 -0.661620 -0.749830 -0.003808
-0.085894 -2.519533 2.634057 -0.041631 -0.999133 0.000000
-0.171788 -2.515954 2.519533 -0.041631 -0.999133 0.000000
-0.342679 -2.501638 2.634057 -0.125321 -0.992116 -0.000001
-0.427678 -2.490902 2.519533 -0.125321 -0.992116 0.000000
-0.595885 -2.462271 2.634057 -0.210247 -0.977648 0.000000
-0.679094 -2.444376 2.519533 -0.210247 -0.977648 0.000000
-0.842828 -2.401430 2.634057 -0.297067 -0.954857 0.000000
-0.923352 -2.376377 2.519533 -0.297067 -0.954857 0.000000
-1.080823 -2.319115 2.634057 -0.386138 -0.922441 0.000000
-1.157769 -2.286905 2.519533 -0.386138 -0.922441 -0.000001
-1.307187 -2.215327 2.634057 -0.477331 -0.878723 -0.000001
-1.379660 -2.175960 2.519533 -0.477332 -0.878723 0.000000
-1.519236 -2.090067 2.634057 -0.569779 -0.821798 0.000000
-1.586340 -2.043541 2.519533 -0.569781 -0.821797 0.000000
-1.714285 -1.943333 2.634057 -0.661622 -0.749838 0.000000
-1.775126 -1.889649 2.519533 -0.661621 -0.749838 0.000000
-0.162914 -2.396826 0.048306 -0.042246 -0.986749 -0.156660
-0.080675 -2.385343 -0.046460 -0.042761 -0.986796 -0.156224
-0.159565 -2.348444 -0.229453 -0.042778 -0.977990 -0.204218
-0.078892 -2.333189 -0.319670 -0.043462 -0.978083 -0.203630
-0.155912 -2.288547 -0.492668 -0.043526 -0.964533 -0.260348
-0.077021 -2.269107 -0.578120 -0.044340 -0.964686 -0.259643
-0.152215 -2.215943 -0.740605 -0.044464 -0.944458 -0.325609
-0.075194 -2.191902 -0.821064 -0.045363 -0.944684 -0.324830
-0.148735 -2.129442 -0.972527 -0.045552 -0.915375 -0.400017
-0.073541 -2.100383 -1.047758 -0.046468 -0.915673 -0.399228
-0.145734 -2.027854 -1.187698 -0.046703 -0.874574 -0.482638
-0.072193 -1.993356 -1.257455 -0.047543 -0.874919 -0.481930
-0.143472 -1.909988 -1.385381 -0.047777 -0.819467 -0.571132
-0.071279 -1.869628 -1.449410 -0.048413 -0.819787 -0.570618
-0.142211 -1.774653 -1.564841 -0.048571 -0.748372 -0.661498
-0.070932 -1.728006 -1.622877 -0.048841 -0.748534 -0.661296
-0.406377 -2.372874 0.051535 -0.126599 -0.979289 -0.158006
-0.323426 -2.368337 -0.043720 -0.127901 -0.979297 -0.156906
-0.398141 -2.324945 -0.224953 -0.127745 -0.970234 -0.205737
-0.316520 -2.316534 -0.315920 -0.129362 -0.970313 -0.204350
-0.389051 -2.265638 -0.486687 -0.129225 -0.956462 -0.261688
-0.309117 -2.252905 -0.573218 -0.130972 -0.956641 -0.260164
-0.379736 -2.193797 -0.732965 -0.130881 -0.936134 -0.326379
-0.301725 -2.176275 -0.814900 -0.132582 -0.936416 -0.324881
-0.370827 -2.108264 -0.963087 -0.132559 -0.906962 -0.399810
-0.294857 -2.085473 -1.040254 -0.134049 -0.907322 -0.398495
-0.362992 -2.007858 -1.176369 -0.134111 -0.866301 -0.481184
-0.289063 -1.979300 -1.248581 -0.135377 -0.866719 -0.480075
-0.356942 -1.891371 -1.372142 -0.135503 -0.811701 -0.568137
-0.284893 -1.856558 -1.439185 -0.136458 -0.812111 -0.567323
-0.353388 -1.757593 -1.549738 -0.136577 -0.741683 -0.656698
-0.282899 -1.716048 -1.611366 -0.137011 -0.741915 -0.656346
-0.645606 -2.328392 0.056559 -0.211559 -0.964170 -0.160061
-0.562814 -2.330906 -0.038664 -0.213401 -0.964022 -0.158496
-0.632553 -2.281317 -0.217920 -0.212829 -0.954720 -0.207880
-0.550832 -2.279893 -0.308954 -0.214989 -0.954641 -0.206010
-0.618037 -2.223160 -0.477250 -0.214292 -0.940631 -0.263233
-0.537876 -2.217315 -0.564017 -0.216405 -0.940667 -0.261370
-0.602995 -2.152857 -0.720749 -0.215608 -0.920225 -0.326648
-0.524789 -2.142072 -0.803167 -0.217376 -0.920369 -0.325068
-0.588367 -2.069344 -0.947734 -0.216538 -0.891367 -0.398215
-0.512416 -2.053058 -1.025719 -0.217775 -0.891565 -0.397098
-0.575256 -1.971451 -1.157585 -0.217014 -0.851424 -0.477476
-0.501802 -1.949043 -1.231068 -0.217935 -0.851656 -0.476640
-0.564966 -1.857882 -1.349764 -0.217371 -0.798031 -0.562046
-0.494035 -1.828769 -1.418626 -0.218088 -0.798289 -0.561402
-0.558802 -1.727341 -1.523736 -0.217805 -0.729914 -0.647909
-0.490204 -1.690978 -1.587805 -0.218198 -0.730102 -0.647565
-0.878055 -2.263407 0.062593 -0.297715 -0.940708 -0.162586
-0.796311 -2.273084 -0.032173 -0.299842 -0.940346 -0.160761
-0.860303 -2.217607 -0.209437 -0.298599 -0.930913 -0.210334
-0.779337 -2.223326 -0.299962 -0.300948 -0.930618 -0.208280
-0.840380 -2.161219 -0.465750 -0.299338 -0.916709 -0.264652
-0.760800 -2.162477 -0.552004 -0.301388 -0.916564 -0.262824
-0.819441 -2.093352 -0.705617 -0.299431 -0.896637 -0.326163
-0.741796 -2.089578 -0.787595 -0.300814 -0.896631 -0.324906
-0.798643 -2.013119 -0.928309 -0.298617 -0.868701 -0.395205
-0.723420 -2.003671 -1.006030 -0.299231 -0.868746 -0.394640
-0.779549 -1.919373 -1.133261 -0.297057 -0.830224 -0.471684
-0.707337 -1.903438 -1.206831 -0.297355 -0.830274 -0.471407
-0.764291 -1.810604 -1.320132 -0.295565 -0.778845 -0.553210
-0.695374 -1.787457 -1.389582 -0.295889 -0.778938 -0.552906
-0.755000 -1.685307 -1.488581 -0.294871 -0.713493 -0.635593
-0.689358 -1.654305 -1.553873 -0.295197 -0.713630 -0.635288
-1.101180 -2.177947 0.068856 -0.385385 -0.907829 -0.165303
-1.021392 -2.194900 -0.025127 -0.387523 -0.907256 -0.163438
-1.078891 -2.133864 -0.200587 -0.385364 -0.897890 -0.212808
-0.999546 -2.146894 -0.290132 -0.387589 -0.897399 -0.210833
-1.053591 -2.079919 -0.453574 -0.384758 -0.883930 -0.265763
-0.975390 -2.088524 -0.538668 -0.386466 -0.883649 -0.264215
-1.026525 -2.015508 -0.689225 -0.382974 -0.864700 -0.325000
-0.950155 -2.019078 -0.769919 -0.383840 -0.864616 -0.324200
-0.998940 -1.940028 -0.906657 -0.379827 -0.838232 -0.391279
-0.925073 -1.937844 -0.983069 -0.379977 -0.838229 -0.391139
-0.972895 -1.852361 -1.105315 -0.375875 -0.801874 -0.464452
-0.902594 -1.843338 -1.177787 -0.375866 -0.801874 -0.464460
-0.951666 -1.750617 -1.285127 -0.372365 -0.753298 -0.542112
-0.885576 -1.733818 -1.353902 -0.372643 -0.753358 -0.541838
-0.938533 -1.632904 -1.446019 -0.370578 -0.691768 -0.619782
-0.876875 -1.607541 -1.511247 -0.371044 -0.691939 -0.619312
-1.312438 -2.072040 0.074564 -0.474447 -0.864130 -0.167869
-1.235528 -2.096388 -0.018407 -0.476309 -0.863427 -0.166203
-1.285833 -2.030111 -0.192494 -0.473022 -0.854393 -0.215090
-1.208985 -2.050634 -0.280691 -0.474923 -0.853770 -0.213365
-1.255261 -1.979237 -0.442317 -0.470584 -0.841087 -0.266690
-1.179211 -1.995492 -0.525656 -0.471991 -0.840708 -0.265396
-1.221924 -1.919189 -0.673800 -0.466511 -0.823142 -0.323736
-1.147439 -1.930599 -0.752276 -0.467175 -0.823009 -0.323117
-1.187030 -1.849735 -0.885840 -0.460515 -0.798627 -0.387454
-1.114901 -1.855593 -0.959527 -0.460693 -0.798606 -0.387286
-1.152915 -1.770114 -1.077609 -0.453375 -0.765903 -0.455899
-1.084775 -1.769067 -1.146985 -0.452392 -0.765916 -0.456852
-1.123860 -1.678526 -1.248879 -0.445494 -0.722880 -0.528186
-1.061052 -1.669099 -1.314549 -0.443829 -0.722684 -0.529853
-1.105051 -1.572349 -1.399669 -0.439350 -0.667204 -0.601507
-1.048624 -1.552953 -1.462363 -0.439021 -0.667107 -0.601855
-1.509283 -1.945715 0.078935 -0.564141 -0.808013 -0.169882
-1.436193 -1.977577 -0.012895 -0.565441 -0.807358 -0.168671
-1.478646 -1.906368 -0.186283 -0.560873 -0.798991 -0.216877
-1.405196 -1.934554 -0.272911 -0.562217 -0.798387 -0.215617
-1.442996 -1.859125 -0.433612 -0.556157 -0.786871 -0.267440
-1.369909 -1.883285 -0.514821 -0.557195 -0.786468 -0.266462
-1.403380 -1.804160 -0.661732 -0.549351 -0.770715 -0.322819
-1.331445 -1.823809 -0.737373 -0.549954 -0.770523 -0.322251
-1.360846 -1.741647 -0.869325 -0.539915 -0.748704 -0.384622
-1.290916 -1.756162 -0.939317 -0.540380 -0.748594 -0.384183
-1.317555 -1.671813 -1.054817 -0.529049 -0.720953 -0.447587
-1.251682 -1.679907 -1.119422 -0.527497 -0.721170 -0.449067
-1.277917 -1.594408 -1.216652 -0.515975 -0.685089 -0.514221
-1.218234 -1.594075 -1.276733 -0.513822 -0.685106 -0.516350
-1.249951 -1.505915 -1.354260 -0.505665 -0.637006 -0.581830
-1.199577 -1.493616 -1.411526 -0.505853 -0.637047 -0.581622
-1.689172 -1.798998 0.081187 -0.652861 -0.737952 -0.170881
-1.620861 -1.838501 -0.009469 -0.653355 -0.737626 -0.170394
-1.654847 -1.762659 -0.183076 -0.647452 -0.730334 -0.217759
-1.585721 -1.798664 -0.268060 -0.647986 -0.730016 -0.217235
-1.614405 -1.719533 -0.429092 -0.640083 -0.720117 -0.267815
-1.545130 -1.751809 -0.508016 -0.640551 -0.719870 -0.267361
-1.568634 -1.670183 -0.655410 -0.630064 -0.706464 -0.322378
-1.499971 -1.698374 -0.727918 -0.630456 -0.706285 -0.322004
-1.518320 -1.615173 -0.860582 -0.616444 -0.687846 -0.383228
-1.451130 -1.638797 -0.926349 -0.616956 -0.687653 -0.382752
-1.465008 -1.555821 -1.042515 -0.600759 -0.665441 -0.443032
-1.401363 -1.574322 -1.100992 -0.600462 -0.665528 -0.443302
-1.412111 -1.494256 -1.198220 -0.581483 -0.636782 -0.506347
-1.354538 -1.506248 -1.249275 -0.581694 -0.636739 -0.506157
-1.365600 -1.435163 -1.320695 -0.562734 -0.600568 -0.568021
-1.320696 -1.435163 -1.365599 -0.568019 -0.600569 -0.562735
-2.385343 -0.080673 -0.046460 -0.986795 -0.042761 -0.156226
-2.396826 -0.162913 0.048306 -0.986749 -0.042242 -0.156660
-2.368337 -0.323425 -0.043720 -0.979296 -0.127902 -0.156907
-2.372875 -0.406376 0.051535 -0.979289 -0.126597 -0.158007
-2.330907 -0.562812 -0.038664 -0.964022 -0.213403 -0.158496
-2.328392 -0.645604 0.056559 -0.964170 -0.211557 -0.160061
-2.273084 -0.796310 -0.032173 -0.940346 -0.299841 -0.160761
-2.263408 -0.878054 0.062593 -0.940708 -0.297714 -0.162586
-2.194901 -1.021391 -0.025127 -0.907256 -0.387524 -0.163437
-2.177948 -1.101179 0.068856 -0.907829 -0.385384 -0.165303
-2.096389 -1.235527 -0.018407 -0.863427 -0.476308 -0.166204
-2.072041 -1.312437 0.074564 -0.864129 -0.474447 -0.167869
-1.977578 -1.436192 -0.012895 -0.807357 -0.565441 -0.168672
-1.945716 -1.509282 0.078935 -0.808014 -0.564141 -0.169880
-1.838502 -1.620860 -0.009469 -0.737627 -0.653354 -0.170393
-1.798999 -1.689171 0.081187 -0.737951 -0.652861 -0.170882
-2.333189 -0.078890 -0.319670 -0.978082 -0.043459 -0.203632
-2.348444 -0.159564 -0.229453 -0.977991 -0.042779 -0.204216
-2.316535 -0.316519 -0.315920 -0.970313 -0.129362 -0.204348
-2.324945 -0.398140 -0.224953 -0.970234 -0.127743 -0.205739
-2.279893 -0.550831 -0.308954 -0.954641 -0.214987 -0.206011
-2.281317 -0.632552 -0.217920 -0.954719 -0.212831 -0.207881
-2.223326 -0.779336 -0.299962 -0.930617 -0.300950 -0.208280
-2.217607 -0.860302 -0.209437 -0.930914 -0.298593 -0.210336
-2.146895 -0.999545 -0.290132 -0.897398 -0.387590 -0.210835
-2.133865 -1.078890 -0.200587 -0.897890 -0.385366 -0.212809
-2.050635 -1.208984 -0.280691 -0.853771 -0.474920 -0.213366
-2.030112 -1.285832 -0.192494 -0.854392 -0.473022 -0.215090
-1.934555 -1.405194 -0.272911 -0.798387 -0.562217 -0.215617
-1.906369 -1.478645 -0.186283 -0.798992 -0.560871 -0.216877
-1.798665 -1.585720 -0.268060 -0.730016 -0.647986 -0.217235
-1.762660 -1.654846 -0.183076 -0.730333 -0.647452 -0.217760
-2.269106 -0.077020 -0.578120 -0.964686 -0.044337 -0.259645
-2.288547 -0.155911 -0.492668 -0.964533 -0.043526 -0.260349
-2.252905 -0.309115 -0.573218 -0.956640 -0.130971 -0.260166
-2.265638 -0.389050 -0.486687 -0.956462 -0.129225 -0.261689
-2.217316 -0.537875 -0.564017 -0.940667 -0.216405 -0.261371
-2.223160 -0.618036 -0.477250 -0.940632 -0.214291 -0.263233
-2.162477 -0.760799 -0.552004 -0.916564 -0.301388 -0.262824
-2.161219 -0.840379 -0.465750 -0.916710 -0.299338 -0.264652
-2.088525 -0.975389 -0.538668 -0.883649 -0.386465 -0.264215
-2.079919 -1.053590 -0.453574 -0.883930 -0.384756 -0.265762
-1.995493 -1.179210 -0.525656 -0.840708 -0.471991 -0.265396
-1.979238 -1.255259 -0.442317 -0.841086 -0.470585 -0.266692
-1.883286 -1.369908 -0.514821 -0.786469 -0.557194 -0.266462
-1.859126 -1.442995 -0.433612 -0.786871 -0.556156 -0.267440
-1.751810 -1.545129 -0.508016 -0.719871 -0.640550 -0.267361
-1.719534 -1.614404 -0.429092 -0.720116 -0.640084 -0.267816
-2.191901 -0.075193 -0.821064 -0.944684 -0.045359 -0.324829
-2.215943 -0.152214 -0.740605 -0.944459 -0.044464 -0.325608
-2.176275 -0.301724 -0.814900 -0.936416 -0.132580 -0.324881
-2.193797 -0.379735 -0.732965 -0.936135 -0.130882 -0.326377
-2.142072 -0.524788 -0.803167 -0.920370 -0.217376 -0.325065
-2.152857 -0.602994 -0.720749 -0.920225 -0.215608 -0.326648
-2.089578 -0.741795 -0.787595 -0.896631 -0.300814 -0.324906
-2.093353 -0.819440 -0.705617 -0.896637 -0.299430 -0.326165
-2.019078 -0.950154 -0.769919 -0.864617 -0.383838 -0.324200
-2.015508 -1.026524 -0.689225 -0.864700 -0.382974 -0.324999
-1.930600 -1.147438 -0.752276 -0.823009 -0.467173 -0.323117
-1.919190 -1.221923 -0.673800 -0.823142 -0.466511 -0.323736
-1.823810 -1.331444 -0.737373 -0.770523 -0.549953 -0.322250
-1.804161 -1.403379 -0.661732 -0.770715 -0.549351 -0.322819
-1.698375 -1.499970 -0.727918 -0.706285 -0.630455 -0.322006
-1.670184 -1.568633 -0.655410 -0.706464 -0.630064 -0.322378
-2.100382 -0.073540 -1.047758 -0.915674 -0.046466 -0.399227
-2.129442 -0.148734 -0.972527 -0.915375 -0.045550 -0.400017
-2.085473 -0.294856 -1.040254 -0.907322 -0.134046 -0.398495
-2.108264 -0.370826 -0.963087 -0.906961 -0.132560 -0.399811
-2.053058 -0.512415 -1.025719 -0.891565 -0.217775 -0.397098
-2.069344 -0.588366 -0.947734 -0.891367 -0.216538 -0.398217
-2.003671 -0.723419 -1.006030 -0.868748 -0.299228 -0.394639
-2.013119 -0.798642 -0.928309 -0.868700 -0.298620 -0.395204
-1.937844 -0.925072 -0.983069 -0.838230 -0.379975 -0.391139
-1.940028 -0.998939 -0.906657 -0.838232 -0.379825 -0.391280
-1.855594 -1.114900 -0.959527 -0.798606 -0.460693 -0.387286
-1.849735 -1.187029 -0.885840 -0.798627 -0.460515 -0.387454
-1.756163 -1.290915 -0.939317 -0.748595 -0.540379 -0.384184
-1.741648 -1.360845 -0.869325 -0.748704 -0.539916 -0.384621
-1.638798 -1.451129 -0.926349 -0.687653 -0.616955 -0.382752
-1.615174 -1.518319 -0.860582 -0.687848 -0.616444 -0.383227
-1.993356 -0.072192 -1.257455 -0.874919 -0.047544 -0.481930
-2.027854 -0.145733 -1.187698 -0.874574 -0.046700 -0.482638
-1.979300 -0.289062 -1.248582 -0.866719 -0.135378 -0.480074
-2.007858 -0.362991 -1.176369 -0.866301 -0.134110 -0.481184
-1.949043 -0.501801 -1.231068 -0.851656 -0.217936 -0.476640
-1.971451 -0.575255 -1.157585 -0.851423 -0.217012 -0.477478
-1.903438 -0.707336 -1.206831 -0.830274 -0.297354 -0.471408
-1.919373 -0.779548 -1.133261 -0.830223 -0.297057 -0.471685
-1.843338 -0.902593 -1.177787 -0.801874 -0.375865 -0.464460
-1.852362 -0.972894 -1.105315 -0.801874 -0.375876 -0.464452
-1.769068 -1.084774 -1.146985 -0.765917 -0.452390 -0.456852
-1.770115 -1.152914 -1.077609 -0.765903 -0.453376 -0.455898
-1.679908 -1.251681 -1.119422 -0.721170 -0.527497 -0.449067
-1.671814 -1.317554 -1.054817 -0.720954 -0.529047 -0.447587
-1.574323 -1.401362 -1.100992 -0.665528 -0.600463 -0.443302
-1.555822 -1.465007 -1.042515 -0.665441 -0.600758 -0.443033
-1.869628 -0.071279 -1.449410 -0.819787 -0.048412 -0.570619
-1.909988 -0.143472 -1.385381 -0.819466 -0.047776 -0.571133
-1.856558 -0.284893 -1.439185 -0.812111 -0.136459 -0.567323
-1.891371 -0.356942 -1.372142 -0.811701 -0.135501 -0.568138
-1.828769 -0.494035 -1.418626 -0.798289 -0.218088 -0.561402
-1.857882 -0.564965 -1.349765 -0.798031 -0.217372 -0.562046
-1.787457 -0.695373 -1.389582 -0.778939 -0.295888 -0.552906
-1.810604 -0.764290 -1.320132 -0.778845 -0.295565 -0.553211
-1.733818 -0.885575 -1.353902 -0.753358 -0.372642 -0.541840
-1.750617 -0.951665 -1.285127 -0.753299 -0.372364 -0.542111
-1.669100 -1.061051 -1.314549 -0.722683 -0.443829 -0.529853
-1.678527 -1.123859 -1.248879 -0.722881 -0.445492 -0.528186
-1.594076 -1.218233 -1.276733 -0.685107 -0.513820 -0.516351
-1.594409 -1.277916 -1.216652 -0.685089 -0.515976 -0.514220
-1.506249 -1.354537 -1.249275 -0.636739 -0.581694 -0.506157
-1.494257 -1.412110 -1.198220 -0.636781 -0.581482 -0.506348
-1.728006 -0.070931 -1.622877 -0.748535 -0.048841 -0.661295
-1.774653 -0.142210 -1.564841 -0.748372 -0.048572 -0.661499
-1.716048 -0.282899 -1.611366 -0.741915 -0.137009 -0.656347
-1.757593 -0.353388 -1.549738 -0.741683 -0.136577 -0.656699
-1.690978 -0.490203 -1.587805 -0.730102 -0.218197 -0.647565
-1.727341 -0.558801 -1.523736 -0.729915 -0.217805 -0.647908
-1.654305 -0.689358 -1.553873 -0.713630 -0.295197 -0.635287
-1.685307 -0.755000 -1.488581 -0.713492 -0.294871 -0.635594
-1.607541 -0.876874 -1.511247 -0.691940 -0.371042 -0.619312
-1.632904 -0.938532 -1.446019 -0.691769 -0.370575 -0.619782
-1.552954 -1.048623 -1.462363 -0.667106 -0.439021 -0.601855
-1.572350 -1.105050 -1.399669 -0.667205 -0.439350 -0.601506
-1.493617 -1.199576 -1.411526 -0.637047 -0.505853 -0.581622
-1.505916 -1.249950 -1.354260 -0.637006 -0.505665 -0.581830
-1.435164 -1.320695 -1.365599 -0.600569 -0.568020 -0.562735
-1.435164 -1.365599 -1.320695 -0.600568 -0.562734 -0.568021
-2.423270 -0.165697 0.241068 -0.992246 -0.042252 -0.116888
-2.438331 -0.083457 0.339413 -0.992289 -0.041945 -0.116630
-2.455129 -0.167828 0.541137 -0.995535 -0.041963 -0.084552
-2.467330 -0.084371 0.643564 -0.995556 -0.041778 -0.084402
-2.478713 -0.169394 0.852506 -0.997408 -0.041798 -0.058565
-2.488458 -0.085023 0.958417 -0.997417 -0.041696 -0.058483
-2.495264 -0.170481 1.173482 -0.998405 -0.041709 -0.038064
-2.502959 -0.085458 1.282282 -0.998408 -0.041653 -0.038021
-2.506022 -0.171177 1.502368 -0.998881 -0.041662 -0.022382
-2.512074 -0.085719 1.613469 -0.998882 -0.041640 -0.022362
-2.512229 -0.171569 1.837469 -0.999072 -0.041641 -0.011025
-2.517046 -0.085850 1.950287 -0.999072 -0.041632 -0.011016
-2.515126 -0.171743 2.177089 -0.999126 -0.041634 -0.003639
-2.519118 -0.085893 2.291046 -0.999127 -0.041628 -0.003636
-2.515954 -0.171786 2.519533 -0.999133 -0.041629 -0.000000
-2.519533 -0.085893 2.634057 -0.999133 -0.041631 -0.000000
-2.399014 -0.411912 0.243428 -0.984922 -0.126749 -0.117744
-2.420920 -0.331744 0.340935 -0.985101 -0.125966 -0.117084
-2.430596 -0.417369 0.542678 -0.988365 -0.126082 -0.085078
-2.449744 -0.335692 0.644535 -0.988456 -0.125619 -0.084698
-2.453977 -0.421396 0.853444 -0.990318 -0.125710 -0.058878
-2.470745 -0.338555 0.958988 -0.990364 -0.125446 -0.058668
-2.470385 -0.424211 1.173998 -0.991355 -0.125506 -0.038241
-2.485159 -0.340507 1.282581 -0.991377 -0.125367 -0.038131
-2.481052 -0.426030 1.502612 -0.991851 -0.125402 -0.022475
-2.494220 -0.341722 1.613599 -0.991861 -0.125335 -0.022422
-2.487207 -0.427069 1.837558 -0.992051 -0.125350 -0.011066
-2.499164 -0.342374 1.950327 -0.992054 -0.125324 -0.011044
-2.490080 -0.427546 2.177108 -0.992109 -0.125327 -0.003652
-2.501225 -0.342634 2.291052 -0.992110 -0.125318 -0.003646
-2.490902 -0.427676 2.519533 -0.992116 -0.125320 -0.000000
-2.501638 -0.342677 2.634057 -0.992116 -0.125320 0.000000
-2.354016 -0.653831 0.247233 -0.969990 -0.211995 -0.119067
-2.382670 -0.576575 0.343903 -0.970346 -0.210893 -0.118122
-2.385071 -0.662551 0.545170 -0.973664 -0.211186 -0.085904
-2.411091 -0.583513 0.646437 -0.973852 -0.210536 -0.085361
-2.408061 -0.668995 0.854966 -0.975740 -0.210727 -0.059378
-2.431800 -0.588555 0.960116 -0.975837 -0.210363 -0.059078
-2.424197 -0.673506 1.174841 -0.976838 -0.210484 -0.038529
-2.446014 -0.592003 1.283179 -0.976886 -0.210288 -0.038372
-2.434687 -0.676428 1.503014 -0.977363 -0.210355 -0.022628
-2.454951 -0.594158 1.613865 -0.977386 -0.210256 -0.022553
-2.440741 -0.678104 1.837708 -0.977576 -0.210287 -0.011136
-2.459828 -0.595322 1.950414 -0.977585 -0.210247 -0.011105
-2.443568 -0.678877 2.177140 -0.977640 -0.210256 -0.003674
-2.461862 -0.595797 2.291065 -0.977642 -0.210246 -0.003664
-2.444376 -0.679092 2.519533 -0.977649 -0.210245 -0.000000
-2.462271 -0.595883 2.634057 -0.977648 -0.210247 0.000000
-2.288298 -0.888877 0.251876 -0.946716 -0.298597 -0.120702
-2.323599 -0.815360 0.347785 -0.947247 -0.297353 -0.119601
-2.318566 -0.900763 0.548215 -0.950630 -0.297899 -0.086936
-2.351384 -0.825210 0.648930 -0.950918 -0.297162 -0.086305
-2.340974 -0.909551 0.856828 -0.952832 -0.297507 -0.060010
-2.371631 -0.832374 0.961598 -0.952983 -0.297091 -0.059660
-2.356703 -0.915707 1.175874 -0.953995 -0.297289 -0.038897
-2.385530 -0.837279 1.283967 -0.954072 -0.297066 -0.038715
-2.366929 -0.919698 1.503509 -0.954551 -0.297174 -0.022826
-2.394269 -0.840350 1.614218 -0.954587 -0.297063 -0.022738
-2.372832 -0.921991 1.837892 -0.954778 -0.297109 -0.011227
-2.399039 -0.842014 1.950531 -0.954792 -0.297063 -0.011190
-2.375589 -0.923053 2.177181 -0.954847 -0.297076 -0.003701
-2.401030 -0.842698 2.291084 -0.954850 -0.297067 -0.003692
-2.376378 -0.923351 2.519533 -0.954857 -0.297066 -0.000001
-2.401430 -0.842826 2.634057 -0.954856 -0.297068 0.000000
-2.201882 -1.114476 0.256747 -0.913955 -0.386894 -0.122471
-2.243726 -1.045511 0.352048 -0.914618 -0.385678 -0.121349
-2.231096 -1.129391 0.551412 -0.918044 -0.386573 -0.088064
-2.270636 -1.058160 0.651670 -0.918409 -0.385852 -0.087421
-2.252726 -1.140422 0.858786 -0.920336 -0.386388 -0.060707
-2.290246 -1.067365 0.963229 -0.920531 -0.385979 -0.060352
-2.267909 -1.148153 1.176961 -0.921543 -0.386283 -0.039306
-2.303709 -1.073671 1.284837 -0.921642 -0.386063 -0.039121
-2.277781 -1.153168 1.504031 -0.922120 -0.386218 -0.023047
-2.312175 -1.077623 1.614610 -0.922169 -0.386106 -0.022959
-2.283480 -1.156052 1.838088 -0.922356 -0.386176 -0.011328
-2.316797 -1.079768 1.950661 -0.922376 -0.386128 -0.011292
-2.286143 -1.157391 2.177225 -0.922429 -0.386149 -0.003734
-2.318727 -1.080653 2.291106 -0.922435 -0.386133 -0.003723
-2.286906 -1.157768 2.519533 -0.922442 -0.386136 -0.000001
-2.319116 -1.080822 2.634057 -0.922441 -0.386138 -0.000001
-2.094788 -1.328051 0.261238 -0.870222 -0.476759 -0.124156
-2.143070 -1.264438 0.356158 -0.870922 -0.475738 -0.123158
-2.122675 -1.345823 0.554361 -0.874329 -0.477076 -0.089148
-2.168858 -1.279741 0.654315 -0.874717 -0.476469 -0.088579
-2.143324 -1.358968 0.860593 -0.876621 -0.477250 -0.061382
-2.187652 -1.290880 0.964805 -0.876832 -0.476903 -0.061069
-2.157819 -1.368184 1.177967 -0.877825 -0.477332 -0.039707
-2.200555 -1.298513 1.285680 -0.877936 -0.477141 -0.039544
-2.167245 -1.374165 1.504515 -0.878402 -0.477356 -0.023266
-2.208671 -1.303302 1.614991 -0.878454 -0.477263 -0.023188
-2.172688 -1.377608 1.838270 -0.878638 -0.477352 -0.011430
-2.213103 -1.305903 1.950789 -0.878661 -0.477311 -0.011397
-2.175231 -1.379207 2.177265 -0.878711 -0.477339 -0.003766
-2.214954 -1.306978 2.291128 -0.878717 -0.477328 -0.003757
-2.175961 -1.379659 2.519533 -0.878723 -0.477332 -0.000000
-2.215328 -1.307186 2.634057 -0.878724 -0.477331 -0.000001
-1.967040 -1.527027 0.264739 -0.813829 -0.567393 -0.125490
-2.021650 -1.469552 0.359583 -0.814414 -0.566712 -0.124771
-1.993318 -1.547445 0.556664 -0.817687 -0.568581 -0.090019
-2.046062 -1.487329 0.656523 -0.818014 -0.568175 -0.089609
-2.012776 -1.562550 0.862007 -0.819837 -0.569238 -0.061931
-2.063855 -1.500271 0.966124 -0.820015 -0.569006 -0.061707
-2.026438 -1.573141 1.178755 -0.820963 -0.569577 -0.040037
-2.076073 -1.509143 1.286387 -0.821056 -0.569450 -0.039921
-2.035323 -1.580017 1.504896 -0.821500 -0.569726 -0.023447
-2.083759 -1.514710 1.615312 -0.821545 -0.569664 -0.023391
-2.040455 -1.583977 1.838415 -0.821720 -0.569775 -0.011515
-2.087957 -1.517738 1.950898 -0.821738 -0.569750 -0.011491
-2.042854 -1.585818 2.177298 -0.821787 -0.569782 -0.003793
-2.089712 -1.518991 2.291147 -0.821792 -0.569775 -0.003786
-2.043542 -1.586339 2.519533 -0.821799 -0.569778 0.000000
-2.090068 -1.519235 2.634057 -0.821797 -0.569781 -0.000001
-1.818658 -1.708830 0.266642 -0.743162 -0.657108 -0.126173
-1.879485 -1.658264 0.361790 -0.743424 -0.656867 -0.125886
-1.843039 -1.731645 0.557920 -0.746404 -0.659314 -0.090478
-1.902262 -1.678301 0.657950 -0.746552 -0.659168 -0.090316
-1.861094 -1.748526 0.862782 -0.748207 -0.660540 -0.062229
-1.918864 -1.692890 0.966980 -0.748288 -0.660457 -0.062139
-1.873771 -1.760364 1.179190 -0.749149 -0.661179 -0.040220
-1.930266 -1.702894 1.286849 -0.749193 -0.661132 -0.040173
-1.882018 -1.768052 1.505108 -0.749597 -0.661475 -0.023550
-1.937440 -1.709174 1.615524 -0.749617 -0.661453 -0.023527
-1.886782 -1.772480 1.838496 -0.749776 -0.661590 -0.011563
-1.941361 -1.712590 1.950971 -0.749785 -0.661581 -0.011554
-1.889010 -1.774540 2.177317 -0.749830 -0.661619 -0.003808
-1.943000 -1.714007 2.291160 -0.749831 -0.661618 -0.003806
-1.889650 -1.775125 2.519533 -0.749838 -0.661621 0.000000
-1.943334 -1.714284 2.634057 -0.749837 -0.661622 0.000000
-2.438330 0.083458 0.339413 -0.992289 0.041948 -0.116630
-2.423269 0.165698 0.241068 -0.992246 0.042253 -0.116888
-2.420920 0.331745 0.340935 -0.985101 0.125966 -0.117084
-2.399014 0.411913 0.243428 -0.984922 0.126748 -0.117744
-2.382670 0.576576 0.343903 -0.970346 0.210895 -0.118122
-2.354016 0.653832 0.247233 -0.969991 0.211994 -0.119066
-2.323598 0.815361 0.347785 -0.947247 0.297353 -0.119600
-2.288298 0.888878 0.251876 -0.946716 0.298598 -0.120702
-2.243725 1.045512 0.352048 -0.914618 0.385678 -0.121349
-2.201881 1.114476 0.256747 -0.913954 0.386896 -0.122471
-2.143069 1.264438 0.356158 -0.870922 0.475739 -0.123158
-2.094788 1.328051 0.261238 -0.870222 0.476758 -0.124156
-2.021649 1.469552 0.359583 -0.814412 0.566714 -0.124771
-1.967039 1.527028 0.264739 -0.813829 0.567392 -0.125490
-1.879484 1.658265 0.361790 -0.743424 0.656867 -0.125886
-1.818657 1.708831 0.266642 -0.743160 0.657110 -0.126172
-2.467330 0.084371 0.643564 -0.995556 0.041780 -0.084402
-2.455128 0.167829 0.541137 -0.995535 0.041964 -0.084552
-2.449743 0.335693 0.644535 -0.988456 0.125620 -0.084698
-2.430596 0.417370 0.542678 -0.988365 0.126082 -0.085078
-2.411091 0.583514 0.646437 -0.973852 0.210536 -0.085361
-2.385070 0.662552 0.545170 -0.973664 0.211184 -0.085904
-2.351384 0.825211 0.648930 -0.950918 0.297164 -0.086305
-2.318565 0.900764 0.548215 -0.950631 0.297898 -0.086936
-2.270635 1.058161 0.651670 -0.918409 0.385853 -0.087421
-2.231095 1.129392 0.551412 -0.918045 0.386573 -0.088064
-2.168857 1.279742 0.654315 -0.874719 0.476466 -0.088578
-2.122674 1.345823 0.554361 -0.874328 0.477078 -0.089149
-2.046062 1.487330 0.656523 -0.818014 0.568176 -0.089611
-1.993317 1.547445 0.556664 -0.817687 0.568581 -0.090019
-1.902261 1.678302 0.657950 -0.746552 0.659169 -0.090316
-1.843038 1.731646 0.557920 -0.746402 0.659316 -0.090478
-2.488458 0.085023 0.958417 -0.997417 0.041696 -0.058482
-2.478713 0.169394 0.852506 -0.997408 0.041799 -0.058564
-2.470744 0.338556 0.958988 -0.990364 0.125448 -0.058667
-2.453976 0.421397 0.853444 -0.990318 0.125709 -0.058879
-2.431799 0.588556 0.960116 -0.975837 0.210364 -0.059078
-2.408061 0.668996 0.854966 -0.975739 0.210730 -0.059378
-2.371631 0.832375 0.961598 -0.952984 0.297090 -0.059661
-2.340974 0.909551 0.856828 -0.952832 0.297506 -0.060009
-2.290245 1.067366 0.963229 -0.920532 0.385978 -0.060352
-2.252725 1.140423 0.858786 -0.920335 0.386391 -0.060707
-2.187651 1.290881 0.964805 -0.876832 0.476904 -0.061069
-2.143323 1.358969 0.860593 -0.876621 0.477250 -0.061381
-2.063855 1.500272 0.966124 -0.820014 0.569007 -0.061707
-2.012776 1.562551 0.862007 -0.819836 0.569239 -0.061931
-1.918864 1.692891 0.966980 -0.748287 0.660458 -0.062140
-1.861093 1.748526 0.862782 -0.748207 0.660540 -0.062228
-2.502959 0.085458 1.282282 -0.998408 0.041653 -0.038021
-2.495263 0.170482 1.173482 -0.998404 0.041713 -0.038065
-2.485158 0.340508 1.282581 -0.991377 0.125368 -0.038132
-2.470385 0.424212 1.173998 -0.991356 0.125505 -0.038242
-2.446014 0.592004 1.283179 -0.976886 0.210288 -0.038373
-2.424196 0.673507 1.174841 -0.976838 0.210484 -0.038530
-2.385529 0.837280 1.283967 -0.954071 0.297068 -0.038715
-2.356702 0.915707 1.175874 -0.953995 0.297290 -0.038898
-2.303708 1.073671 1.284837 -0.921643 0.386062 -0.039123
-2.267908 1.148153 1.176961 -0.921543 0.386282 -0.039307
-2.200554 1.298514 1.285680 -0.877934 0.477146 -0.039545
-2.157818 1.368185 1.177967 -0.877826 0.477331 -0.039707
-2.076072 1.509144 1.286387 -0.821056 0.569450 -0.039920
-2.026437 1.573142 1.178755 -0.820962 0.569577 -0.040036
-1.930265 1.702895 1.286849 -0.749192 0.661133 -0.040173
-1.873770 1.760365 1.179190 -0.749150 0.661178 -0.040219
-2.512074 0.085719 1.613469 -0.998882 0.041640 -0.022361
-2.506022 0.171178 1.502368 -0.998881 0.041663 -0.022383
-2.494220 0.341723 1.613599 -0.991861 0.125335 -0.022423
-2.481052 0.426031 1.502612 -0.991851 0.125402 -0.022476
-2.454951 0.594159 1.613865 -0.977386 0.210258 -0.022553
-2.434687 0.676429 1.503014 -0.977364 0.210353 -0.022629
-2.394269 0.840351 1.614218 -0.954587 0.297064 -0.022739
-2.366929 0.919699 1.503509 -0.954551 0.297172 -0.022826
-2.312175 1.077624 1.614610 -0.922167 0.386109 -0.022958
-2.277781 1.153169 1.504031 -0.922120 0.386216 -0.023047
-2.208670 1.303302 1.614991 -0.878453 0.477265 -0.023187
-2.167244 1.374166 1.504515 -0.878402 0.477356 -0.023265
-2.083758 1.514711 1.615312 -0.821544 0.569665 -0.023391
-2.035322 1.580018 1.504896 -0.821500 0.569726 -0.023446
-1.937439 1.709174 1.615524 -0.749617 0.661454 -0.023526
-1.882017 1.768052 1.505108 -0.749596 0.661476 -0.023549
-2.517046 0.085850 1.950287 -0.999072 0.041632 -0.011016
-2.512229 0.171569 1.837469 -0.999072 0.041641 -0.011025
-2.499164 0.342374 1.950327 -0.992054 0.125324 -0.011044
-2.487207 0.427070 1.837558 -0.992051 0.125349 -0.011066
-2.459828 0.595323 1.950414 -0.977585 0.210247 -0.011105
-2.440741 0.678105 1.837708 -0.977576 0.210289 -0.011135
-2.399039 0.842015 1.950531 -0.954793 0.297062 -0.011190
-2.372831 0.921992 1.837892 -0.954776 0.297113 -0.011226
-2.316796 1.079769 1.950661 -0.922376 0.386128 -0.011291
-2.283480 1.156053 1.838088 -0.922356 0.386174 -0.011328
-2.213102 1.305904 1.950789 -0.878658 0.477315 -0.011397
-2.172687 1.377608 1.838270 -0.878637 0.477353 -0.011430
-2.087956 1.517739 1.950898 -0.821739 0.569749 -0.011491
-2.040453 1.583977 1.838415 -0.821719 0.569777 -0.011515
-1.941359 1.712591 1.950971 -0.749785 0.661581 -0.011554
-1.886781 1.772480 1.838496 -0.749777 0.661590 -0.011563
-2.519118 0.085893 2.291046 -0.999127 0.041629 -0.003636
-2.515126 0.171743 2.177089 -0.999126 0.041633 -0.003639
-2.501225 0.342635 2.291052 -0.992110 0.125320 -0.003646
-2.490080 0.427547 2.177108 -0.992109 0.125325 -0.003651
-2.461862 0.595798 2.291065 -0.977642 0.210246 -0.003664
-2.443568 0.678878 2.177141 -0.977639 0.210259 -0.003673
-2.401030 0.842699 2.291084 -0.954851 0.297064 -0.003691
-2.375588 0.923054 2.177181 -0.954845 0.297080 -0.003702
-2.318726 1.080654 2.291106 -0.922434 0.386136 -0.003724
-2.286142 1.157392 2.177225 -0.922429 0.386149 -0.003734
-2.214953 1.306979 2.291128 -0.878716 0.477330 -0.003757
-2.175230 1.379208 2.177265 -0.878712 0.477338 -0.003766
-2.089711 1.518992 2.291147 -0.821792 0.569776 -0.003786
-2.042853 1.585819 2.177298 -0.821786 0.569783 -0.003793
-1.942999 1.714007 2.291160 -0.749832 0.661617 -0.003805
-1.889009 1.774541 2.177317 -0.749829 0.661620 -0.003808
-2.519533 0.085893 2.634057 -0.999133 0.041630 0.000000
-2.515954 0.171787 2.519533 -0.999133 0.041629 0.000000
-2.501638 0.342678 2.634057 -0.992116 0.125321 0.000000
-2.490902 0.427677 2.519533 -0.992116 0.125320 0.000000
-2.462271 0.595884 2.634057 -0.977648 0.210248 0.000000
-2.444376 0.679093 2.519533 -0.977648 0.210246 0.000000
-2.401430 0.842827 2.634057 -0.954857 0.297067 0.000000
-2.376378 0.923352 2.519533 -0.954857 0.297065 0.000001
-2.319115 1.080823 2.634057 -0.922440 0.386140 0.000001
-2.286905 1.157769 2.519533 -0.922440 0.386139 0.000000
-2.215327 1.307187 2.634057 -0.878724 0.477331 0.000000
-2.175960 1.379659 2.519533 -0.878724 0.477331 0.000000
-2.090067 1.519235 2.634057 -0.821797 0.569781 0.000000
-2.043541 1.586340 2.519533 -0.821798 0.569779 0.000000
-1.943333 1.714284 2.634057 -0.749838 0.661622 0.000000
-1.889649 1.775125 2.519533 -0.749837 0.661622 0.000000
-2.396826 0.162914 0.048306 -0.986749 0.042244 -0.156659
-2.385343 0.080675 -0.046460 -0.986795 0.042763 -0.156225
-2.348444 0.159565 -0.229453 -0.977991 0.042778 -0.204217
-2.333189 0.078892 -0.319670 -0.978082 0.043463 -0.203632
-2.288546 0.155912 -0.492668 -0.964533 0.043526 -0.260349
-2.269106 0.077021 -0.578120 -0.964686 0.044342 -0.259645
-2.215942 0.152215 -0.740605 -0.944458 0.044467 -0.325608
-2.191901 0.075195 -0.821064 -0.944684 0.045362 -0.324829
-2.129442 0.148736 -0.972527 -0.915375 0.045552 -0.400016
-2.100382 0.073542 -1.047758 -0.915674 0.046468 -0.399227
-2.027854 0.145735 -1.187698 -0.874574 0.046702 -0.482638
-1.993356 0.072194 -1.257455 -0.874919 0.047544 -0.481931
-1.909988 0.143473 -1.385381 -0.819467 0.047775 -0.571132
-1.869628 0.071280 -1.449410 -0.819786 0.048413 -0.570619
-1.774653 0.142212 -1.564841 -0.748372 0.048571 -0.661498
-1.728006 0.070932 -1.622877 -0.748534 0.048841 -0.661295
-2.372874 0.406377 0.051535 -0.979289 0.126596 -0.158007
-2.368337 0.323426 -0.043720 -0.979296 0.127902 -0.156906
-2.324945 0.398141 -0.224953 -0.970234 0.127742 -0.205738
-2.316534 0.316520 -0.315920 -0.970313 0.129359 -0.204349
-2.265638 0.389051 -0.486687 -0.956462 0.129226 -0.261689
-2.252904 0.309117 -0.573218 -0.956640 0.130969 -0.260166
-2.193796 0.379737 -0.732965 -0.936134 0.130883 -0.326378
-2.176275 0.301726 -0.814900 -0.936416 0.132578 -0.324881
-2.108264 0.370827 -0.963087 -0.906962 0.132557 -0.399811
-2.085473 0.294858 -1.040254 -0.907322 0.134046 -0.398495
-2.007858 0.362993 -1.176369 -0.866301 0.134109 -0.481184
-1.979300 0.289063 -1.248581 -0.866719 0.135379 -0.480074
-1.891371 0.356943 -1.372142 -0.811702 0.135503 -0.568137
-1.856558 0.284894 -1.439185 -0.812110 0.136458 -0.567323
-1.757593 0.353389 -1.549738 -0.741683 0.136577 -0.656699
-1.716048 0.282900 -1.611366 -0.741914 0.137010 -0.656347
-2.328392 0.645605 0.056559 -0.964170 0.211559 -0.160060
-2.330906 0.562813 -0.038664 -0.964022 0.213401 -0.158496
-2.281317 0.632553 -0.217920 -0.954720 0.212829 -0.207880
-2.279893 0.550832 -0.308954 -0.954641 0.214989 -0.206010
-2.223160 0.618037 -0.477250 -0.940631 0.214291 -0.263234
-2.217315 0.537876 -0.564017 -0.940667 0.216405 -0.261371
-2.152857 0.602995 -0.720749 -0.920225 0.215607 -0.326649
-2.142072 0.524790 -0.803167 -0.920370 0.217373 -0.325065
-2.069344 0.588368 -0.947734 -0.891367 0.216536 -0.398217
-2.053058 0.512416 -1.025719 -0.891565 0.217774 -0.397098
-1.971451 0.575256 -1.157585 -0.851423 0.217012 -0.477477
-1.949043 0.501802 -1.231068 -0.851656 0.217937 -0.476640
-1.857882 0.564966 -1.349764 -0.798031 0.217370 -0.562047
-1.828769 0.494036 -1.418626 -0.798288 0.218089 -0.561403
-1.727340 0.558802 -1.523736 -0.729915 0.217806 -0.647908
-1.690977 0.490205 -1.587805 -0.730102 0.218199 -0.647565
-2.263407 0.878055 0.062593 -0.940708 0.297713 -0.162587
-2.273084 0.796311 -0.032173 -0.940347 0.299841 -0.160761
-2.217607 0.860303 -0.209437 -0.930913 0.298597 -0.210335
-2.223326 0.779337 -0.299962 -0.930618 0.300948 -0.208280
-2.161219 0.840380 -0.465750 -0.916708 0.299341 -0.264652
-2.162477 0.760800 -0.552004 -0.916564 0.301386 -0.262825
-2.093352 0.819441 -0.705617 -0.896637 0.299431 -0.326163
-2.089578 0.741796 -0.787595 -0.896631 0.300812 -0.324906
-2.013119 0.798643 -0.928309 -0.868700 0.298619 -0.395204
-2.003671 0.723420 -1.006030 -0.868747 0.299230 -0.394639
-1.919372 0.779549 -1.133261 -0.830223 0.297057 -0.471686
-1.903438 0.707337 -1.206831 -0.830274 0.297355 -0.471407
-1.810604 0.764291 -1.320132 -0.778845 0.295566 -0.553210
-1.787457 0.695374 -1.389582 -0.778938 0.295889 -0.552906
-1.685307 0.755001 -1.488581 -0.713493 0.294870 -0.635594
-1.654304 0.689359 -1.553873 -0.713630 0.295197 -0.635288
-2.177947 1.101180 0.068856 -0.907829 0.385385 -0.165304
-2.194900 1.021391 -0.025127 -0.907255 0.387525 -0.163437
-2.133864 1.078891 -0.200587 -0.897890 0.385364 -0.212809
-2.146894 0.999546 -0.290132 -0.897398 0.387590 -0.210834
-2.079919 1.053591 -0.453574 -0.883930 0.384759 -0.265762
-2.088524 0.975390 -0.538668 -0.883648 0.386465 -0.264216
-2.015508 1.026525 -0.689225 -0.864701 0.382974 -0.324998
-2.019078 0.950155 -0.769919 -0.864616 0.383840 -0.324199
-1.940028 0.998940 -0.906657 -0.838231 0.379827 -0.391281
-1.937844 0.925073 -0.983069 -0.838229 0.379977 -0.391139
-1.852361 0.972895 -1.105315 -0.801874 0.375875 -0.464452
-1.843338 0.902594 -1.177787 -0.801873 0.375867 -0.464460
-1.750617 0.951666 -1.285127 -0.753299 0.372365 -0.542112
-1.733817 0.885576 -1.353902 -0.753358 0.372642 -0.541839
-1.632904 0.938533 -1.446019 -0.691769 0.370577 -0.619781
-1.607541 0.876875 -1.511247 -0.691940 0.371043 -0.619310
-2.072041 1.312437 0.074564 -0.864128 0.474449 -0.167870
-2.096388 1.235527 -0.018407 -0.863428 0.476308 -0.166203
-2.030111 1.285833 -0.192494 -0.854392 0.473022 -0.215090
-2.050634 1.208984 -0.280691 -0.853769 0.474926 -0.213366
-1.979237 1.255260 -0.442317 -0.841086 0.470584 -0.266691
-1.995492 1.179211 -0.525656 -0.840707 0.471991 -0.265396
-1.919189 1.221924 -0.673800 -0.823142 0.466511 -0.323736
-1.930600 1.147439 -0.752276 -0.823009 0.467174 -0.323117
-1.849735 1.187030 -0.885840 -0.798627 0.460515 -0.387454
-1.855593 1.114901 -0.959527 -0.798606 0.460693 -0.387286
-1.770114 1.152915 -1.077609 -0.765903 0.453374 -0.455900
-1.769067 1.084775 -1.146985 -0.765916 0.452392 -0.456853
-1.678526 1.123860 -1.248879 -0.722881 0.445493 -0.528184
-1.669099 1.061052 -1.314549 -0.722683 0.443829 -0.529853
-1.572349 1.105051 -1.399669 -0.667205 0.439350 -0.601506
-1.552953 1.048624 -1.462363 -0.667105 0.439023 -0.601855
-1.945715 1.509283 0.078935 -0.808013 0.564142 -0.169882
-1.977578 1.436193 -0.012895 -0.807359 0.565439 -0.168671
-1.906368 1.478646 -0.186283 -0.798991 0.560872 -0.216877
-1.934554 1.405195 -0.272911 -0.798387 0.562217 -0.215617
-1.859125 1.442996 -0.433612 -0.786871 0.556156 -0.267440
